1039549.299	1247206.875	0
1039516.289	1247211.249	0
1039447.251	1247218.409	0
1039407.606	1247221.51	0
1039380.536	1247223.274	0
1039315.458	1247226.522	0
1039274.192	1247227.967	0
1039251.577	1247228.588	0
1039188.598	1247229.763	0
1039145.089	1247230.167	0
1039126.314	1247230.251	0
1039115.034	1247227.838	0
1039104.146	1247223.485	0
1039083.436	1247211.572	0
1039058.235	1247195.214	0
1039046.168	1247187.35	0
1039009.015	1247163.015	0
1038988.716	1247149.639	0
1038971.978	1247138.566	0
1038935.057	1247114.001	0
1038919.605	1247103.662	0
1038898.254	1247089.321	0
1038861.57	1247064.523	0
1038850.907	1247057.278	0
1038825.004	1247039.608	0
1038788.558	1247014.575	0
1038782.626	1247010.481	0
1038752.233	1246989.422	0
1038716.03	1246964.149	0
1038714.769	1246963.265	0
1038679.949	1246938.755	0
1038647.415	1246915.677	0
1038643.992	1246913.239	0
1038608.159	1246887.601	0
1038581.152	1246868.135	0
1038572.451	1246861.838	0
1038536.869	1246835.951	0
1038515.32	1246820.167	0
1038501.415	1246809.939	0
1038466.088	1246783.8	0
1038449.926	1246771.767	0
1038384.976	1246722.929	0
1038320.474	1246673.647	0
1038256.428	1246623.915	0
1038192.845	1246573.726	0
1038129.729	1246523.076	0
1038067.088	1246471.956	0
1038006.429	1246421.617	0
1037946.807	1246371.305	0
1037887.646	1246320.538	0
1037825.376	1246266.156	0
1037759.319	1246207.362	0
1037692.177	1246149.641	0
1037622.724	1246094.203	0
1037556.715	1246042.27	0
1037490.335	1245990.761	0
1037415.171	1245933.276	0
1037377.226	1245904.69	0
1037339.28	1245876.104	0
1037302.04	1245845.412	0
1037282.814	1245831.267	0
1037272.69	1245825.219	0
1037262.566	1245819.171	0
1037237.918	1245808.687	0
1037211.905	1245800.998	0
1037157.992	1245789.755	0
1037104.221	1245777.803	0
1037052.259	1245761.485	0
1037029.509	1245751.478	0
1037006.759	1245741.471	0
1036961.995	1245719.293	0
1036871.844	1245677.149	0
1036781.696	1245635.003	0
1036691.059	1245592.624	0
1036600.22	1245550.146	0
1036509.383	1245507.666	0
1036418.55	1245465.183	0
1036327.719	1245422.697	0
1036236.892	1245380.208	0
1036146.067	1245337.716	0
1036045.924	1245304.62	0
1035938.134	1245279.167	0
1035840.409	1245243.773	0
1035739.726	1245211.301	0
1041840.015	1244944.205	6801.934627
1041824.618	1244931.181	6834.36531
1041791.334	1244903.026	6920.812101
1041771.669	1244886.391	6962.501003
1041758.049	1244874.87	7008.069977
1041724.764	1244846.714	7079.067761
1041703.323	1244828.577	7124.837206
1041691.479	1244818.558	7167.549889
1041658.195	1244790.402	7239.036072
1041634.977	1244770.763	7313.015689
1041624.91	1244762.247	7334.689871
1041612.687	1244756.858	7338.751493
1041598.959	1244754.881	7342.813329
1041569.847	1244755.603	7350.93764
1041528.374	1244755.317	7351.084928
1041508.485	1244755.18	7351.155563
1041447.124	1244754.757	7351.373487
1041413.518	1244754.526	7351.492838
1041385.762	1244754.334	7351.591411
1041324.401	1244753.912	7351.809336
1041298.661	1244753.734	7351.90075
1041263.039	1244753.489	7352.027262
1041201.678	1244753.066	7352.245188
1041183.805	1244752.943	7352.308665
1041140.316	1244752.643	7352.463115
1041078.955	1244752.221	7352.681042
1041068.948	1244752.152	7352.716581
1041017.593	1244751.798	7352.89897
1040956.232	1244751.375	7353.116899
1040954.092	1244751.36	7353.1245
1040894.87	1244750.952	7353.334828
1040839.359	1244750.57	7353.531979
1040833.509	1244750.529	7353.552757
1040772.147	1244750.107	7353.770688
1040725.758	1244749.787	7353.935445
1040710.786	1244749.684	7353.988619
1040649.424	1244749.261	7354.206551
1040612.156	1244749.004	7354.338914
1040588.063	1244748.838	7354.424483
1040526.701	1244748.416	7354.642416
1040498.554	1244748.222	7354.742385
1040384.952	1244747.439	7355.145858
1040271.35	1244746.656	7355.549333
1040157.748	1244745.873	7355.95281
1040044.147	1244745.091	7356.356289
1039930.545	1244744.308	7356.759771
1039816.943	1244743.525	7357.163254
1039706.094	1244742.762	7357.556962
1039596.303	1244742.005	7361.206485
1039486.511	1244741.249	7362.174098
1039369.998	1244740.446	7351.789597
1039245.289	1244739.587	7353.048632
1039121.587	1244737.733	7358.825653
1038999.152	1244734.627	7289.880335
1038883.536	1244731.694	7220.578692
1038767.976	1244728.762	7149.79933
1038637.954	1244725.464	7061.171192
1038573.905	1244721.46	7015.062766
1038507.532	1244722.155	6970.743546
1038437.67	1244729.331	6936.664914
1038405.067	1244728.207	6927.21902
1038390.177	1244724.79	6925.650201
1038376.543	1244718.832	6925.273854
1038359.213	1244705.19	6918.7773
1038344.314	1244686.874	6916.241656
1038318.921	1244643.04	6916.094532
1038294.252	1244599.657	6911.313314
1038263.517	1244565.057	6901.370179
1038242.678	1244552.256	6898.061453
1038219.3	1244542.49	6892.584023
1038169.644	1244526.429	6882.948699
1038075.887	1244487.848	6880.252123
1037982.129	1244449.268	6878.600343
1037887.859	1244410.476	6839.591785
1037793.377	1244371.598	6834.554593
1037698.894	1244332.719	6807.853919
1037604.412	1244293.84	6801.826932
1037509.93	1244254.961	6794.954718
1037415.447	1244216.082	6787.275878
1037320.965	1244177.203	6760.224214
1037212.289	1244152.536	6624.547369
1037098.678	1244132.832	6461.900441
1036985.309	1244112.89	6299.239581
1036871.95	1244092.939	6148.499694
