1038204.532	1242979.471	4554.231097
1038231.191	1243074.39	4472.039784
1038255.222	1243169.683	4420.022783
1038276.737	1243265.39	4411.264059
1038286.32	1243313.197	4415.804911
1038295.904	1243361.003	4426.940008
1038302.401	1243385.078	4435.097592
1038308.899	1243409.153	4443.211522
1038321.895	1243457.303	4456.728808
1038316.762	1243553.869	4286.998538
1038302.768	1243652.159	4087.217521
1038279.004	1243750.976	3858.245242
1038260.716	1243846.84	3730.938513
1038244.805	1243916.669	3739.32851
1038213.703	1243982.959	3751.818616
1038167.051	1244055.844	3770.567809
1038115.852	1244130.308	3805.553661
1038063.36	1244216	3873.20033
1038013.009	1244305.396	3900.029196
1037972.031	1244398.036	3953.8348
1037951.324	1244491.48	3981.578148
1037935.855	1244587.034	4011.986446
1037922.26	1244685.951	4042.06341
1037911.065	1244784.964	4077.426103
1037902.334	1244883.871	4123.675955
1037895.559	1244983.234	4179.273084
1037889.435	1245082.622	4235.378317
1037884.538	1245182.318	4286.509707
1037882.934	1245282.241	4330.122613
1037881.757	1245382.182	4365.927821
1037879.178	1245482.067	4395.878084
1037874.989	1245581.887	4067.24911
1037869.8	1245681.728	3933.804018
1037852.856	1245781.092	3742.56646
1037832.923	1245880.337	3568.060216
1037811.772	1245979.534	3428.302988
1037790.711	1246078.758	3337.009715
1037770.526	1246178.021	3420.263553
1037750.588	1246277.293	3428.247884
1037727.154	1246376.427	3415.103595
1037700.265	1246474.602	3401.803284
1037671.227	1246571.038	3390.652604
1037640.215	1246667.396	3380.991556
1037607.948	1246763.704	3371.332132
1037574.085	1246859.949	3361.703397
1037567.039	1246884.067	3357.711121
1037559.993	1246908.184	3353.719097
1037545.902	1246956.419	3345.735802
1037520.771	1247052.479	3324.212702
1037495.744	1247147.293	3302.974
1037468.244	1247243.538	3281.403514
1037440.542	1247340.756	3259.623329
1037413.032	1247438.334	3237.772304
1037384.8	1247537.111	3215.657298
1037356.051	1247635.991	3193.522542
1037327.332	1247734.293	3171.52386
1037298.438	1247832.554	3149.540344
1037269.578	1247930.545	3127.62426
1037240.6	1248028.379	3105.749667
1037212.214	1248126.176	3083.895762
1037186.081	1248223.215	3062.236746
1037164.711	1248320.611	3040.547925
1037148.664	1248419.74	3018.530751
1037138.645	1248519.108	2996.521266
1037135.484	1248618.932	2974.47912
1037122.268	1248718.486	2793.44057
1037103.148	1248817.769	2647.870567
1037118.314	1248917.809	2503.389517
1037144.335	1249017.777	2359.84927
1037941.864	1236617.559	5802.163876
1037936.621	1236716.745	5860.287048
1037923.879	1236815.632	5918.44294
1037907.159	1236914.363	5976.631572
1037889.412	1237013.052	6034.852961
1037870.987	1237111.714	6093.107126
1037851.817	1237210.347	6151.394085
1037832.545	1237308.976	6209.713857
1037813.152	1237407.6	6268.06646
1037793.504	1237506.214	6326.451913
1037773.831	1237604.827	6384.870235
1037754.121	1237703.439	6443.321443
1037734.308	1237802.046	6501.805556
1037714.475	1237900.653	6560.322593
1037694.628	1237999.259	6618.872572
1037674.763	1238097.865	6677.455512
1037655.44	1238196.492	6736.071431
1037637.39	1238295.169	6794.720349
1037620.753	1238393.902	6800.089136
1037605.136	1238492.676	6799.475578
1037591.701	1238591.627	6849.99768
1037580.965	1238690.867	6847.533242
1037564.403	1238789.876	6786.509046
1037549.246	1238888.94	6779.744188
1037535.541	1238988.109	6717.265958
1037523.276	1239087.701	6660.048583
1037512.565	1239187.354	6618.254569
1037502.745	1239287.042	6611.346594
1037493.049	1239386.735	6604.450622
1037485.279	1239486.505	6597.570377
1037482.863	1239585.359	6590.688771
1037485.831	1239684.19	6592.958153
1037496.454	1239783.325	6599.121992
1037513.726	1239882.724	6637.649118
1037534.964	1239982.28	6629.988018
1037553.082	1240081.276	6608.739368
1037567.73	1240178.372	6576.622799
1037583.101	1240275.496	6547.108947
1037599.201	1240372.681	6437.481349
1037616.03	1240469.993	6406.316551
1037633.56	1240567.333	6298.379784
1037651.751	1240664.699	6267.863759
1037670.564	1240762.09	6152.526515
1037689.928	1240859.503	6122.400136
1037709.779	1240956.935	5993.83543
1037730.052	1241053.954	5964.073485
1037750.834	1241150.803	5738.931579
1037772.199	1241247.694	5710.17583
1037794.243	1241344.86	5625.996439
1037816.939	1241442.053	5569.013418
1037840.329	1241539.272	5529.980374
1037864.451	1241636.521	5489.963403
1037889.337	1241733.8	5436.866643
1037915.015	1241831.11	5369.112976
1037941.5	1241928.448	5294.929472
1037968.658	1242025.289	5241.08832
1037996.641	1242122.163	5206.049383
1038025.446	1242219.069	5185.652664
1038055.066	1242316.008	5172.538431
1038085.194	1242411.936	5168.138184
1038115.954	1242506.928	5172.919858
1038147.643	1242601.958	5182.750332
1038180.192	1242697.021	5172.016992
1038211.828	1242792.048	5123.738593
1038241.522	1242887.076	5043.264959
1038269.297	1242982.039	4963.854004
1038294.948	1243076.919	4898.259582
1038318.04	1243172.174	4869.748276
1038338.741	1243267.849	4869.325246
1038348.018	1243315.643	4876.418843
1038357.295	1243363.438	4886.319366
1038363.543	1243387.503	4892.878723
1038369.79	1243411.568	4897.513657
1038382.286	1243459.697	4904.819974
1038373.399	1243556.115	4715.694044
1038355.621	1243654.255	4497.885642
1038327.994	1243752.918	4248.437853
1038307.129	1243848.68	4102.320828
1038290.01	1243918.461	4101.416414
1038257.566	1243984.698	4106.405532
1038209.443	1244057.525	4119.37713
1038157.368	1244131.954	4147.068451
1038105.378	1244217.666	4193.550284
1038056.212	1244307.109	4246.676734
1038015.496	1244399.76	4274.685509
1037995.235	1244493.222	4304.674155
1037980.4	1244588.8	4336.205465
1037966.973	1244687.724	4365.842157
1037955.747	1244786.735	4396.7877
1037947.343	1244885.656	4441.576949
1037941.195	1244985.043	4495.602638
1037935.809	1245084.461	4549.580428
1037931.86	1245184.195	4598.251931
1037931.707	1245284.175	4640.53009
1037932.159	1245384.18	4675.818423
1037931.265	1245484.132	4704.931905
1037928.873	1245584.024	4393.28129
1037925.689	1245683.944	4255.446993
1037909.805	1245783.35	4055.168609
1037891.042	1245882.641	3871.022994
1037871.273	1245981.893	3721.33187
1037851.866	1246081.183	3733.461501
1037833.612	1246180.522	3706.622615
1037815.756	1246279.878	3713.45333
1037794.149	1246379.084	3699.306941
1037768.756	1246477.318	3684.992848
1037740.934	1246573.803	3672.992401
1037710.87	1246670.198	3662.59523
1037679.242	1246766.531	3652.199919
1037645.398	1246862.777	3641.837749
1037638.171	1246886.887	3637.541408
1037630.943	1246910.998	3633.245357
1037616.488	1246959.218	3624.654125
1037590.691	1247055.252	3601.4924
1037565.35	1247150.053	3578.637277
1037537.494	1247246.284	3555.425679
1037509.409	1247343.486	3531.989002
1037481.571	1247441.052	3508.476677
1037452.965	1247539.814	3484.68089
1037423.789	1247638.678	3460.864449
1037394.658	1247736.963	3437.195009
1037365.363	1247835.208	3413.542476
1037336.139	1247933.185	3389.96308
1037306.826	1248031.005	3366.428907
1037278.177	1248128.792	3342.917573
1037251.882	1248225.824	3319.616483
1037230.472	1248323.219	3296.283902
1037214.499	1248422.351	3272.598668
1037204.544	1248521.722	3248.922297
1037200.834	1248621.523	3225.211382
1037184.548	1248720.956	3148.293355
1037159.926	1248820.02	2982.240658
1037170.183	1248919.866	2712.985849
1037191.215	1249019.636	2558.873513
1037996.644	1236619.732	6217.641145
1037992.586	1236718.964	6279.851952
1037981.455	1236817.916	6343.45504
1037966.582	1236916.719	6405.779295
1037950.739	1237015.484	6468.140975
1037934.256	1237114.223	6530.540104
1037917.077	1237212.935	6592.976703
1037899.798	1237311.643	6655.450794
1037882.404	1237410.347	6717.962401
1037864.774	1237509.041	6780.511546
1037847.119	1237607.734	6843.098251
1037829.428	1237706.425	6905.722539
1037811.641	1237805.113	6968.384432
1037793.835	1237903.8	7031.083953
1037776.015	1238002.487	7093.821126
1037758.181	1238101.173	7156.595971
1037740.894	1238199.88	7219.408512
1037724.886	1238298.638	7282.258772
1037710.371	1238397.456	7291.466769
1037697.207	1238496.327	7294.067663
1037686.41	1238595.382	7347.420656
1037678.336	1238694.728	7348.184778
1037662.999	1238793.785	7286.278485
1037649.065	1238892.899	7278.262011
1037636.631	1238992.118	7214.732321
1037625.702	1239091.762	7156.329857
1037616.383	1239191.47	7148.167447
1037607.869	1239291.211	7105.13564
1037599.367	1239390.951	7096.995102
1037592.895	1239490.773	7088.873671
1037592.03	1239589.688	7080.753398
1037596.675	1239688.586	7082.161678
1037608.83	1239787.781	7087.466674
1037627.218	1239887.224	7125.584771
1037648.898	1239986.798	7116.702006
1037666.346	1240085.767	7093.259108
1037679.746	1240182.813	7058.171265
1037693.807	1240279.886	7017.981745
1037708.541	1240377.017	6907.981067
1037723.952	1240474.273	6878.864943
1037740.022	1240571.555	6767.460894
1037756.716	1240668.862	6734.047513
1037774	1240766.192	6615.600432
1037791.808	1240863.543	6582.595835
1037810.071	1240960.912	6451.014802
1037828.736	1241057.867	6418.387931
1037847.889	1241154.652	6189.046885
1037867.607	1241251.477	6157.425508
1037887.986	1241348.578	6070.578452
1037909.008	1241445.703	6011.503936
1037930.72	1241542.857	5970.632155
1037953.166	1241640.039	5928.52606
1037976.383	1241737.252	5886.977496
1038000.404	1241834.496	5833.536731
1038025.25	1241931.769	5776.410892
1038050.802	1242028.547	5724.98295
1038077.206	1242125.358	5683.958359
1038104.466	1242222.203	5651.900251
1038132.576	1242319.081	5624.452879
1038161.253	1242414.952	5608.473402
1038190.627	1242509.889	5612.909921
1038220.988	1242604.866	5615.171857
1038252.269	1242699.879	5589.94043
1038282.668	1242794.857	5526.164552
1038311.156	1242889.837	5444.349086
1038337.799	1242984.756	5368.570423
1038362.433	1243079.595	5322.002901
1038384.651	1243174.815	5308.466527
1038404.668	1243270.463	5312.65447
1038413.725	1243318.249	5322.034351
1038422.782	1243366.035	5329.270608
1038428.627	1243390.084	5332.289603
1038434.472	1243414.132	5335.318502
1038446.162	1243462.23	5338.756422
1038432.947	1243558.476	5132.855387
1038410.767	1243656.442	4900.584921
1038378.651	1243754.927	4632.417378
1038354.128	1243850.544	4466.819844
1038335.494	1243920.265	4457.66153
1038302.051	1243986.462	4457.91146
1038253.249	1244059.262	4465.824868
1038201.232	1244133.694	4488.611465
1038150.506	1244219.456	4526.835963
1038103.13	1244308.969	4567.86029
1038063.323	1244401.656	4595.98428
1038043.762	1244495.146	4626.052737
1038029.686	1244590.755	4657.327468
1038016.578	1244689.691	4686.151391
1038005.454	1244788.706	4719.53921
1037997.43	1244887.642	4763.554916
1037991.874	1244987.053	4816.197301
1037987.106	1245086.495	4867.895164
1037983.901	1245186.258	4913.73684
1037984.926	1245286.286	4954.499474
1037986.711	1245386.344	4989.369803
1037987.225	1245486.351	4900.149071
1037986.411	1245586.306	4812.39607
1037985.097	1245686.3	4686.698099
1037970.226	1245785.746	4381.377523
1037952.731	1245885.088	4174.811769
1037934.531	1245984.402	4127.57449
1037916.999	1246083.766	4022.683253
1037900.891	1246183.19	3994.273604
1037885.327	1246282.636	3999.941247
1037865.847	1246381.927	3984.784026
1037842.331	1246480.236	3969.447345
1037816.168	1246576.786	3956.589772
1037787.527	1246673.238	3945.45012
1037756.989	1246769.614	3934.312581
1037723.521	1246865.875	3923.210671
1037716.061	1246889.976	3918.607655
1037708.601	1246914.077	3914.004971
1037693.681	1246962.279	3904.800598
1037666.832	1247058.271	3879.986273
1037640.902	1247153.049	3855.501017
1037612.51	1247249.259	3830.63446
1037583.847	1247346.438	3805.527392
1037555.485	1247443.983	3780.339903
1037526.306	1247542.722	3754.849391
1037496.512	1247641.561	3729.337391
1037466.779	1247739.823	3703.983491
1037436.898	1247838.044	3678.64833
1037407.123	1247935.999	3653.392136
1037377.294	1248033.799	3628.185006
1037348.181	1248131.568	3603.002962
1037321.466	1248228.583	3578.046716
1037299.624	1248325.961	3553.057355
1037283.194	1248425.075	3527.690929
1037272.671	1248524.423	3502.334628
1037267.799	1248624.178	3476.941967
1037248.188	1248723.479	3394.572737
1037217.954	1248822.322	3216.774653
1037222.815	1248921.953	3040.541172
1037238.299	1249021.503	2758.300463
1038051.673	1236621.914	6683.998677
1038049.114	1236721.205	6750.296648
1038039.909	1236820.234	6816.636919
1038027.198	1236919.123	6835.046465
1038013.574	1237017.976	6901.540614
1037999.35	1237116.805	6968.077189
1037984.476	1237215.608	7036.441581
1037969.507	1237314.407	7103.104495
1037954.428	1237413.203	7169.809943
1037939.131	1237511.989	7236.557951
1037923.809	1237610.775	7303.348547
1037908.453	1237709.559	7370.181758
1037893.009	1237808.34	7437.057611
1037877.545	1237907.12	7503.976133
1037862.068	1238005.899	7570.937351
1037846.581	1238104.678	7637.941294
1037831.637	1238203.478	7704.987987
1037817.966	1238302.329	7772.077458
1037805.84	1238401.242	7785.161143
1037795.349	1238500.219	7791.01029
1037787.393	1238599.387	7847.226397
1037782.209	1238698.847	7851.253471
1037768.173	1238797.956	7788.461701
1037755.546	1238897.121	7779.188192
1037744.464	1238996.394	7714.602587
1037734.939	1239096.094	7655.009933
1037727.065	1239195.859	7645.592643
1037719.936	1239295.655	7601.312686
1037712.754	1239395.448	7591.922185
1037707.654	1239495.323	7582.554182
1037708.241	1239594.296	7573.189861
1037714.324	1239693.251	7573.733479
1037727.65	1239792.493	7578.176082
1037746.766	1239891.965	7615.883777
1037768.577	1239991.544	7605.774035
1037785.286	1240090.483	7580.122446
1037797.495	1240187.483	7542.041622
1037810.296	1240284.506	7498.867241
1037823.703	1240381.584	7385.075729
1037837.728	1240478.785	7348.090742
1037852.361	1240576.01	7238.775175
1037867.573	1240673.258	7202.443535
1037883.341	1240770.528	7080.864798
1037899.604	1240867.817	7044.961349
1037916.29	1240965.124	6910.342794
1037933.358	1241062.015	6874.830634
1037950.891	1241158.736	6772.898099
1037968.965	1241255.497	6609.198765
1037987.674	1241352.531	6545.700924
1038007.008	1241449.59	6512.710733
1038027.018	1241546.675	6485.308276
1038047.75	1241643.789	6442.718868
1038069.245	1241740.934	6382.863481
1038091.541	1241838.11	6322.375676
1038114.664	1241935.315	6264.098404
1038138.505	1242032.024	6211.006551
1038163.209	1242128.768	6162.581392
1038188.781	1242225.546	6115.373828
1038215.223	1242322.359	6076.694827
1038242.272	1242418.165	6056.120345
1038270.065	1242513.039	6050.271846
1038298.878	1242607.955	6039.567026
1038328.657	1242702.908	5998.098607
1038357.616	1242797.829	5921.879252
1038384.764	1242892.756	5836.911099
1038410.203	1242987.627	5770.739695
1038433.812	1243082.425	5731.777676
1038455.225	1243177.614	5725.943474
1038474.691	1243273.24	5736.04867
1038483.618	1243321.02	5743.356647
1038492.545	1243368.801	5746.355931
1038499.197	1243392.821	5750.444909
1038505.85	1243416.84	5752.769759
1038513.678	1243464.908	5753.066321
1038495.538	1243560.958	5535.339337
1038468.307	1243658.724	5289.9784
1038431.048	1243757.005	5008.0964
1038401.739	1243852.432	4823.693171
1038381.27	1243922.08	4808.349446
1038347.186	1243988.252	4804.0686
1038298.532	1244061.058	4809.28571
1038247.547	1244135.53	4829.493535
1038198.884	1244221.374	4862.098348
1038153.929	1244310.984	4889.512615
1038115.706	1244403.733	4917.715323
1038097.109	1244497.261	4947.877616
1038083.922	1244592.905	4978.935925
1038071.293	1244691.861	5007.003932
1038060.41	1244790.886	5039.493392
1038052.821	1244889.839	5082.771388
1038047.823	1244989.271	5134.510112
1038043.545	1245088.733	5184.665389
1038040.871	1245188.517	5228.4809
1038042.789	1245288.58	5268.199872
1038045.6	1245388.679	5250.626724
1038047.231	1245488.731	5209.309623
1038047.763	1245588.739	5119.332721
1038048.183	1245688.802	4991.919946
1038034.273	1245788.286	4786.324588
1038018.151	1245887.682	4587.113842
1038001.714	1245987.066	4420.959962
1037986.287	1246086.513	4314.331048
1037972.55	1246186.032	4285.037729
1037959.496	1246285.577	4287.717403
1037942.457	1246384.965	4271.540558
1037921.216	1246483.364	4255.172426
1037897.174	1246579.998	4241.45032
1037870.453	1246676.526	4229.561786
1037841.474	1246772.965	4217.675637
1037808.755	1246869.255	4205.827639
1037801.01	1246893.345	4200.915323
1037793.264	1246917.434	4196.003382
1037777.772	1246965.614	4186.180629
1037749.468	1247061.548	4159.699637
1037722.664	1247156.291	4133.570446
1037693.548	1247252.473	4107.034996
1037664.105	1247349.621	4080.243547
1037635.011	1247447.137	4053.366945
1037605.055	1247545.845	4026.167674
1037574.441	1247644.652	3998.946155
1037543.91	1247742.881	3971.894003
1037513.248	1247841.072	3944.86252
1037482.729	1247938.997	3917.915959
1037452.192	1248036.769	3891.022412
1037422.404	1248134.511	3864.156295
1037395	1248231.499	3837.531732
1037372.317	1248328.843	3810.872495
1037354.876	1248427.917	3783.811666
1037343.125	1248527.217	3756.762313
1037336.451	1248626.901	3729.674849
1037313.247	1248726.059	3641.812645
1037277.29	1248824.674	3452.182039
1037276.246	1248924.072	3264.253053
1037285.594	1249023.378	3077.827033
1038106.94	1236624.105	7101.65595
1038106.18	1236723.468	7172.09465
1038099.203	1236822.585	7242.580937
1038088.956	1236921.572	7315.017334
1038077.854	1237020.524	7385.642807
1038066.19	1237119.455	7456.315993
1038053.923	1237218.362	7527.036924
1038041.566	1237317.265	7597.805634
1038029.105	1237416.164	7621.467472
1038016.444	1237515.055	7692.405653
1038003.758	1237613.945	7763.391759
1037991.038	1237712.834	7834.425823
1037978.238	1237811.719	7907.834493
1037965.42	1237910.604	7979.008775
1037952.587	1238009.488	8050.231142
1037939.749	1238108.372	8121.501626
1037927.445	1238207.278	8192.820258
1037916.392	1238306.232	8264.187072
1037906.912	1238405.25	8281.183182
1037899.305	1238504.341	8290.31463
1037894.382	1238603.629	8349.426317
1037892.306	1238703.213	8356.75099
1037879.644	1238802.376	8293.070351
1037868.405	1238901.596	8282.534364
1037858.752	1239000.926	8216.888373
1037850.699	1239100.684	8156.100406
1037844.321	1239200.509	8145.422797
1037838.651	1239300.362	8099.889281
1037832.91	1239400.212	8089.243397
1037829.254	1239500.145	8078.623415
1037831.195	1239599.171	8068.009639
1037838.489	1239698.175	8067.685022
1037852.638	1239797.449	8071.261667
1037872.113	1239896.935	8108.557582
1037893.758	1239996.508	8097.21553
1037909.66	1240095.415	8069.340718
1037920.736	1240192.37	8028.245065
1037932.322	1240289.344	7982.064105
1037944.44	1240386.371	7864.45627
1037957.108	1240483.519	7824.506535
1037970.324	1240580.687	7708.372155
1037984.071	1240677.877	7668.49671
1037998.335	1240775.088	7628.677956
1038013.063	1240872.317	7503.480518
1038028.186	1240969.561	7440.008643
1038043.667	1241066.39	7330.463082
1038059.587	1241163.046	7248.534219
1038076.019	1241259.742	7180.805716
1038093.055	1241356.71	7128.786767
1038110.688	1241453.701	7089.161359
1038128.972	1241550.718	7034.722043
1038147.954	1241647.763	6959.87364
1038167.677	1241744.837	6878.036849
1038188.183	1241841.943	6810.67708
1038209.498	1241939.076	6751.840707
1038231.53	1242035.713	6695.982988
1038254.416	1242132.385	6635.078417
1038278.167	1242229.091	6572.748735
1038302.788	1242325.831	6522.814603
1038328.041	1242421.566	6492.639239
1038354.063	1242516.37	6476.504492
1038381.121	1242611.216	6453.192603
1038409.17	1242706.101	6395.255456
1038436.498	1242800.957	6306.42268
1038462.177	1242895.826	6223.144129
1038486.343	1242990.646	6163.818381
1038508.92	1243085.404	6132.604218
1038529.592	1243180.563	6120.88326
1038548.637	1243276.172	6126.381138
1038557.52	1243323.951	6129.073494
1038566.403	1243371.73	6132.986239
1038572.529	1243395.763	6132.924946
1038578.655	1243419.796	6131.84331
1038584.68	1243467.723	6129.258733
1038561.041	1243563.555	5915.808921
1038528.139	1243661.096	5662.916815
1038485.111	1243759.149	5371.533105
1038449.934	1243854.343	5172.616128
1038427.325	1243923.906	5153.292553
1038392.943	1243990.067	5145.512901
1038345.229	1244062.91	5149.177731
1038296.209	1244137.46	5168.595913
1038250.372	1244223.416	5198.302815
1038208.443	1244313.145	5222.347297
1038172.451	1244405.983	5241.980107
1038155.072	1244499.56	5270.171327
1038142.898	1244595.244	5301.044116
1038130.899	1244694.224	5328.393692
1038120.392	1244793.264	5360.045507
1038113.29	1244892.236	5402.621869
1038108.816	1244991.69	5453.57675
1038104.908	1245091.166	5502.324644
1038102.56	1245190.964	5544.2426
1038105.098	1245291.051	5583.030981
1038108.64	1245391.179	5563.119774
1038111.109	1245491.264	5519.866081
1038112.768	1245591.316	5427.772614
1038114.789	1245691.443	5298.734309
1038101.79	1245790.963	5088.409571
1038087.142	1245890.418	4885.243658
1038072.654	1245989.879	4716.044515
1038059.554	1246089.419	4607.370723
1038048.403	1246189.04	4576.896512
1038038.068	1246288.693	4578.062449
1038023.768	1246388.189	4560.84389
1038005.184	1246486.694	4543.421986
1037983.706	1246583.429	4527.57967
1037959.38	1246680.052	4514.935811
1037932.412	1246776.571	4502.294627
1037900.799	1246872.905	4489.694154
1037892.717	1246896.981	4484.469893
1037884.635	1246921.058	4479.246056
1037868.47	1246969.21	4468.79965
1037838.325	1247065.071	4440.637832
1037810.372	1247159.769	4412.850817
1037780.353	1247255.915	4384.632446
1037749.935	1247353.024	4356.142539
1037719.911	1247450.503	4327.562784
1037688.981	1247549.173	4298.640631
1037657.355	1247647.939	4269.695544
1037625.836	1247746.13	4240.931266
1037594.207	1247844.282	4212.189679
1037562.758	1247942.171	4183.539099
1037531.331	1248039.907	4154.945593
1037500.668	1248137.615	4126.381957
1037472.317	1248234.565	4098.075836
1037448.401	1248331.861	4069.733546
1037429.417	1248430.873	4040.965024
1037415.806	1248530.099	4012.20942
1037406.718	1248629.687	3983.414019
1037379.665	1248728.693	3890.016826
1037337.877	1248827.077	3688.466068
1037330.441	1248926.221	3488.758848
1037333.092	1249025.262	3290.683266
1038162.429	1236626.306	7520.482188
1038163.748	1236725.751	7595.089213
1038159.281	1236824.967	7669.749442
1038151.78	1236924.063	7744.462914
1038143.481	1237023.127	7819.229666
1038134.66	1237122.17	7896.315468
1038125.283	1237221.191	7971.235517
1038115.82	1237320.209	8046.208993
1038106.259	1237419.223	8121.235935
1038096.515	1237518.23	8196.31638
1038086.746	1237617.236	8273.949128
1038076.945	1237716.24	8349.183476
1038067.072	1237815.242	8424.471476
1038057.181	1237914.243	8499.813166
1038047.276	1238013.243	8575.208584
1038037.367	1238112.243	8604.526087
1038027.98	1238211.264	8680.107729
1038019.808	1238310.333	8755.74327
1038013.213	1238409.465	8824.011375
1038008.687	1238508.679	8838.396271
1038006.979	1238608.094	8850.453212
1038008.212	1238707.809	8912.174081
1037996.992	1238807.03	8851.168734
1037987.217	1238906.308	8786.098094
1037979.066	1239005.697	8719.98821
1037972.545	1239105.516	8708.526447
1037967.71	1239205.402	8646.83867
1037963.57	1239305.316	8600.877031
1037959.383	1239405.228	8588.970318
1037957.238	1239505.22	8577.092927
1037960.443	1239604.297	8565.224267
1037968.736	1239703.339	8563.415725
1037983.383	1239802.634	8565.192391
1038002.873	1239902.121	8569.987026
1038024.072	1240001.675	8586.5485
1038039.107	1240100.549	8555.42244
1038049.1	1240197.46	8510.923469
1038059.516	1240294.388	8461.270397
1038070.38	1240391.365	8405.256822
1038081.718	1240488.46	8295.964352
1038093.538	1240585.573	8252.514888
1038105.835	1240682.706	8169.701932
1038118.605	1240779.857	8076.745959
1038131.81	1240877.025	7996.106908
1038145.379	1240974.208	7916.902094
1038159.284	1241070.974	7841.426614
1038173.598	1241167.567	7777.929078
1038188.39	1241264.198	7731.294767
1038203.748	1241361.099	7693.254448
1038219.669	1241458.022	7646.475962
1038236.205	1241554.97	7558.027046
1038253.403	1241651.944	7459.518581
1038271.308	1241748.947	7368.508561
1038289.961	1241845.979	7293.091498
1038309.392	1241943.037	7231.044609
1038329.522	1242039.599	7172.014247
1038350.482	1242136.194	7096.562943
1038372.286	1242232.823	7020.085304
1038394.944	1242329.485	6953.113277
1038418.243	1242425.142	6905.295446
1038442.319	1242519.87	6883.987039
1038467.427	1242614.638	6854.991222
1038493.534	1242709.446	6773.612903
1038519.052	1242804.231	6680.363444
1038543.143	1242899.036	6602.066682
1038565.97	1242993.804	6550.218706
1038587.507	1243088.52	6516.535124
1038607.501	1243183.652	6494.720742
1038626.244	1243279.249	6482.778616
1038635.163	1243327.03	6480.648893
1038644.082	1243374.81	6472.862245
1038649.55	1243398.864	6468.442621
1038655.017	1243422.917	6464.750693
1038658.934	1243470.668	6459.270618
1038629.262	1243566.261	6260.744793
1038590.111	1243663.554	6013.833154
1038540.73	1243761.354	5720.509279
1038498.676	1243856.276	5515.654185
1038473.642	1243925.743	5493.188389
1038439.28	1243991.904	5482.820704
1038393.246	1244064.814	5485.291021
1038347.062	1244139.476	5504.702884
1038304.764	1244225.573	5534.954605
1038266.425	1244315.445	5559.01903
1038233.267	1244408.395	5579.054174
1038217.343	1244502.029	5603.694127
1038206.298	1244597.758	5629.556624
1038195.071	1244696.769	5653.115803
1038185.064	1244795.829	5682.221149
1038178.498	1244894.822	5723.020253
1038174.518	1244994.295	5772.268941
1038170.867	1245093.782	5818.907036
1038168.654	1245193.584	5859.061264
1038171.556	1245293.687	5898.845523
1038175.554	1245393.832	5876.734066
1038178.603	1245493.94	5831.658709
1038181.181	1245594.029	5737.561166
1038184.68	1245694.214	5607.007723
1038172.548	1245793.769	5392.03631
1038159.466	1245893.286	5184.978678
1038147.1	1245992.831	5012.76681
1038136.533	1246092.471	4902.081891
1038128.169	1246192.203	4870.503611
1038120.75	1246291.972	4871.56658
1038109.469	1246391.588	4853.282569
1038093.898	1246490.211	4834.782906
1038075.397	1246587.065	4817.878932
1038053.909	1246683.801	4804.452778
1038029.372	1246780.416	4789.612662
1037999.198	1246876.807	4776.243003
1037990.732	1246900.868	4770.699874
1037982.265	1246924.929	4763.738481
1037965.333	1246973.051	4752.663116
1037932.988	1247068.825	4722.806222
1037903.63	1247163.467	4693.347401
1037872.538	1247259.57	4663.431995
1037840.964	1247356.634	4633.22946
1037809.827	1247454.069	4602.932423
1037777.739	1247552.693	4572.273176
1037744.921	1247651.412	4541.590385
1037712.237	1247749.556	4511.100018
1037679.468	1247847.663	4480.634461
1037646.917	1247945.508	4450.266123
1037614.43	1248043.203	4419.959033
1037582.704	1248140.868	4389.684352
1037553.164	1248237.771	4359.683351
1037527.649	1248335.003	4329.644753
1037506.627	1248433.935	4299.155167
1037490.567	1248533.064	4268.680032
1037478.493	1248632.533	4238.163483
1037447.351	1248731.377	4139.189041
1037399.632	1248829.526	3925.630004
1037385.348	1248928.398	3714.061372
1037380.779	1249027.153	3504.257808
1038218.125	1236628.514	7990.784048
1038221.782	1236728.052	8069.570797
1038220.087	1236827.378	8148.41669
1038215.593	1236926.593	8227.321771
1038210.36	1237025.779	8306.286083
1038204.644	1237124.945	8385.309672
1038198.418	1237224.092	8464.392582
1038192.111	1237323.235	8543.534857
1038185.713	1237422.374	8575.254772
1038179.147	1237521.507	8654.581746
1038172.558	1237620.639	8733.968269
1038165.938	1237719.769	8813.414385
1038159.253	1237818.897	8892.920139
1038152.551	1237918.025	8972.485576
1038145.836	1238017.151	9052.110741
1038139.119	1238116.278	9134.832134
1038132.903	1238215.425	9214.626545
1038127.856	1238314.618	9294.480855
1038124.37	1238413.873	9316.217867
1038123.106	1238513.216	9381.813603
1038124.781	1238612.765	9398.399914
1038129.513	1238712.619	9412.652691
1038119.799	1238811.899	9401.838097
1038111.556	1238911.238	9338.445308
1038104.974	1239010.689	9271.940954
1038100.044	1239110.572	9259.230029
1038096.796	1239210.521	9191.377396
1038094.251	1239310.498	9128.272951
1038091.722	1239410.475	9115.259085
1038091.149	1239510.53	9067.246971
1038095.535	1239609.654	9053.881016
1038104.63	1239708.728	9051.047769
1038119.475	1239808.031	9051.589499
1038138.658	1239907.505	9055.117754
1038159.154	1240007.032	9058.770764
1038173.264	1240105.868	9041.095741
1038182.223	1240202.739	8989.343023
1038191.508	1240299.622	8936.570454
1038201.151	1240396.551	8877.383185
1038211.184	1240493.594	8809.570598
1038221.628	1240590.653	8738.473784
1038232.487	1240687.728	8661.447946
1038243.774	1240784.82	8581.374513
1038255.465	1240881.929	8498.066973
1038267.491	1240979.051	8418.924841
1038279.828	1241075.754	8349.437908
1038292.543	1241172.284	8290.170051
1038305.699	1241268.85	8239.014533
1038319.375	1241365.684	8193.270246
1038333.572	1241462.539	8128.848281
1038348.339	1241559.417	8035.057457
1038363.722	1241656.319	7933.166107
1038379.766	1241753.247	7839.452411
1038396.509	1241850.204	7758.102412
1038413.985	1241947.184	7688.544408
1038432.127	1242043.668	7621.477225
1038451.059	1242140.183	7546.466075
1038470.799	1242236.729	7460.384127
1038491.363	1242333.309	7367.41188
1038512.561	1242428.883	7294.292642
1038534.529	1242523.526	7258.542235
1038557.504	1242618.21	7212.657032
1038581.475	1242712.934	7131.116496
1038605.016	1242807.64	7047.583485
1038627.406	1242902.378	6980.42015
1038648.835	1242997.09	6928.458433
1038669.326	1243091.764	6884.524212
1038688.697	1243186.872	6845.043907
1038707.25	1243282.461	6808.0011
1038716.281	1243330.246	6790.05155
1038725.311	1243378.031	6772.833141
1038729.992	1243402.112	6761.38671
1038734.673	1243426.193	6752.306761
1038736.209	1243473.732	6740.914442
1038700.008	1243569.066	6562.74609
1038654.07	1243666.09	6344.548988
1038597.793	1243763.617	6061.000163
1038547.925	1243858.229	5854.203299
1038520.2	1243927.589	5829.709054
1038486.157	1243993.763	5817.041888
1038442.489	1244066.766	5818.676698
1038399.948	1244141.574	5838.394435
1038361.852	1244227.836	5871.654255
1038327.628	1244317.871	5898.501008
1038297.863	1244410.957	5919.794547
1038283.614	1244504.657	5943.588693
1038273.806	1244600.435	5965.33064
1038263.483	1244699.482	5984.814257
1038254.092	1244798.566	6012.033002
1038248.107	1244897.583	6051.600343
1038244.591	1244997.074	6097.343559
1038241.092	1245096.566	6135.640366
1038238.836	1245196.367	6164.468027
1038241.868	1245296.475	6187.075457
1038246.065	1245396.628	6183.739156
1038249.453	1245496.75	6139.064219
1038252.761	1245596.868	6050.251803
1038257.623	1245697.107	5923.340032
1038246.314	1245796.694	5707.108142
1038234.886	1245896.276	5494.79907
1038224.803	1245995.912	5316.269559
1038216.96	1246095.661	5200.815944
1038211.569	1246195.51	5165.796837
1038207.247	1246295.402	5166.973146
1038199.245	1246395.148	5147.613962
1038187.018	1246493.904	5126.560185
1038171.877	1246590.891	5110.15096
1038153.64	1246687.756	5095.934865
1038131.924	1246784.482	5080.20307
1038103.499	1246880.943	5066.046328
1038094.604	1246904.987	5060.176915
1038085.71	1246929.031	5052.739993
1038067.92	1246977.119	5041.012433
1038033.041	1247072.793	5007.815538
1038002.04	1247167.37	4976.64687
1037969.721	1247263.424	4943.438846
1037936.823	1247360.435	4911.509426
1037904.4	1247457.819	4879.480889
1037870.983	1247556.39	4847.070245
1037836.807	1247655.055	4814.635523
1037802.795	1247753.147	4782.405017
1037768.724	1247851.202	4750.201538
1037734.911	1247948.998	4718.10162
1037701.204	1248046.644	4686.067237
1037668.241	1248144.26	4654.067901
1037637.29	1248241.107	4622.358617
1037609.836	1248338.262	4590.610375
1037586.315	1248437.095	4558.386275
1037567.259	1248536.105	4526.178252
1037551.668	1248635.435	4493.927265
1037516.215	1248734.108	4389.333064
1037462.472	1248832.018	4163.677124
1037440.918	1248930.602	3940.163455
1037428.642	1249029.051	3718.553082
1038274.012	1236630.73	8411.885891
1038280.247	1236730.371	8494.895715
1038281.565	1236829.816	8577.970968
1038280.32	1236929.16	8661.111703
1038278.395	1237028.477	8744.317972
1038276.025	1237127.776	8827.589826
1038273.192	1237227.057	8910.927316
1038270.283	1237326.334	8994.330495
1038267.289	1237425.609	9077.799414
1038264.144	1237524.877	9161.334125
1038260.976	1237624.145	9244.934679
1038257.779	1237723.411	9328.60113
1038254.524	1237822.675	9412.333529
1038251.253	1237921.939	9496.131927
1038247.969	1238021.201	9579.996377
1038244.685	1238120.464	9663.92693
1038241.878	1238219.746	9747.92364
1038240.182	1238319.072	9831.986557
1038240.009	1238418.458	9857.484984
1038242.176	1238517.937	9925.780403
1038247.389	1238617.627	9944.75446
1038255.794	1238717.626	9963.418057
1038247.643	1238816.969	9951.523073
1038240.998	1238916.371	9888.019959
1038236.047	1239015.887	9823.138685
1038232.761	1239115.835	9755.072715
1038231.14	1239215.848	9740.813163
1038230.251	1239315.891	9671.489377
1038229.475	1239415.938	9606.947233
1038230.533	1239516.058	9592.33272
1038236.022	1239615.225	9542.643414
1038245.737	1239714.324	9538.566716
1038260.503	1239813.623	9537.862505
1038279.082	1239913.073	9549.515882
1038298.637	1240012.563	9557.967384
1038311.768	1240111.361	9538.404876
1038319.738	1240208.192	9493.860575
1038327.93	1240305.032	9440.617745
1038336.382	1240401.913	9380.192245
1038345.134	1240498.905	9313.764009
1038354.218	1240595.91	9242.227451
1038363.653	1240692.929	9165.507723
1038373.466	1240789.963	9085.127667
1038383.652	1240887.012	9000.944504
1038394.145	1240984.073	8917.855455
1038404.922	1241080.715	8840.884966
1038416.043	1241177.181	8764.355418
1038427.564	1241273.682	8693.124667
1038439.556	1241370.45	8624.507457
1038452.018	1241467.236	8550.268921
1038464.999	1241564.043	8467.558267
1038478.538	1241660.872	8381.03168
1038492.679	1241757.725	8288.365642
1038507.46	1241854.603	8199.691312
1038522.916	1241951.504	8121.57759
1038538.99	1242047.905	8056.974155
1038555.801	1242144.336	7990.377524
1038573.369	1242240.797	7892.233774
1038591.715	1242337.288	7782.76294
1038610.679	1242432.773	7686.829486
1038630.387	1242527.328	7606.165542
1038651.064	1242621.92	7541.253559
1038672.716	1242716.552	7478.874086
1038694.126	1242811.173	7413.465737
1038714.713	1242905.84	7354.959148
1038734.69	1243000.494	7295.548909
1038754.127	1243095.127	7234.954447
1038772.928	1243190.212	7173.944419
1038791.394	1243285.798	7111.770263
1038800.605	1243333.59	7079.567223
1038809.815	1243381.382	7045.939009
1038813.59	1243405.497	7029.886796
1038817.364	1243429.611	7016.242113
1038816.271	1243476.907	7003.906006
1038773.083	1243571.964	6839.076622
1038719.862	1243668.699	6658.333905
1038656.188	1243765.933	6395.780477
1038597.643	1243860.2	6190.276373
1038566.982	1243929.444	6164.912723
1038533.531	1243995.641	6149.645052
1038492.862	1244068.764	6150.489831
1038454.713	1244143.745	6170.837119
1038421.429	1244230.199	6208.168521
1038391.803	1244320.416	6240.638655
1038365.95	1244413.657	6265.380579
1038353.578	1244507.431	6288.855817
1038345.106	1244603.262	6306.725638
1038335.808	1244702.35	6322.525692
1038327.141	1244801.463	6349.395168
1038321.779	1244900.504	6389.213227
1038318.7	1245000.013	6431.429663
1038315.257	1245099.507	6460.871708
1038312.795	1245199.3	6477.59303
1038315.737	1245299.404	6489.999774
1038319.898	1245399.556	6482.099822
1038323.402	1245499.682	6437.866198
1038327.262	1245599.822	6358.24669
1038333.382	1245700.111	6240.624269
1038322.857	1245799.729	6023.423264
1038313.163	1245899.38	5800.144104
1038305.512	1245999.113	5600.449405
1038300.569	1246098.976	5447.700607
1038298.324	1246198.95	5362.512919
1038297.266	1246298.971	5312.683445
1038292.783	1246398.857	5292.387299
1038284.204	1246497.758	5337.902396
1038272.778	1246594.892	5320.637207
1038258.172	1246691.901	5305.679688
1038239.638	1246788.753	5290.725689
1038213.247	1246885.295	5357.677057
1038203.883	1246909.32	5351.478468
1038194.52	1246933.346	5345.280465
1038175.793	1246981.397	5331.283583
1038138.071	1247076.958	5296.223623
1038105.208	1247171.461	5263.304504
1038071.517	1247267.461	5228.179744
1038037.139	1247364.413	5192.735122
1038003.273	1247461.74	5158.934782
1037968.37	1247560.252	5123.036794
1037932.68	1247658.857	5088.835826
1037897.19	1247756.89	5054.851043
1037861.668	1247854.888	5020.895602
1037826.444	1247952.627	4987.050197
1037791.372	1248050.219	4953.274726
1037757.01	1248147.78	4919.537043
1037724.441	1248244.563	4886.105992
1037694.736	1248341.629	4852.63469
1037668.291	1248440.346	4818.662544
1037645.733	1248539.217	4784.708195
1037626.135	1248638.388	4750.709402
1037586.166	1248736.882	4640.452687
1037526.313	1248834.549	4402.610717
1037497.099	1248932.83	4167.067934
1037476.667	1249030.955	3933.57152
1038330.073	1236632.953	8834.167813
1038339.106	1236732.705	8921.428718
1038343.658	1236832.278	9055.829609
1038345.884	1236931.76	9143.175883
1038347.488	1237031.217	9230.594286
1038348.688	1237130.657	9318.084876
1038349.469	1237230.081	9405.647713
1038350.179	1237329.503	9493.282857
1038350.811	1237428.921	9580.990368
1038351.308	1237528.334	9668.770305
1038351.782	1237627.746	9756.622729
1038352.23	1237727.157	9844.547698
1038352.628	1237826.565	9932.545274
1038353.009	1237925.974	10020.61552
1038353.377	1238025.381	10108.75848
1038353.748	1238124.789	10196.97424
1038354.567	1238224.215	10285.26284
1038356.428	1238323.682	10373.62434
1038359.756	1238423.207	10400.38135
1038365.509	1238522.828	10421.3577
1038374.402	1238622.664	10491.57787
1038386.639	1238722.815	10512.49337
1038380.106	1238822.222	10451.06218
1038375.118	1238921.69	10436.51853
1038371.854	1239021.272	10371.45955
1038370.26	1239121.287	10304.95242
1038370.304	1239221.367	10235.28656
1038371.125	1239321.477	10219.48488
1038372.192	1239421.597	10152.39476
1038374.933	1239521.784	10128.94523
1038381.454	1239620.992	10114.89625
1038391.622	1239720.109	10108.22314
1038406.053	1239819.395	10105.44507
1038423.759	1239918.811	10102.34341
1038442.154	1240018.254	10096.14753
1038454.259	1240117.011	10063.89868
1038461.28	1240213.805	10009.40783
1038468.413	1240310.603	9948.182995
1038475.701	1240407.438	9884.289346
1038483.193	1240504.38	9815.831807
1038490.933	1240601.332	9743.866389
1038498.955	1240698.295	9666.64252
1038507.304	1240795.271	9585.608255
1038515.992	1240892.26	9499.300519
1038524.96	1240989.26	9408.625982
1038534.186	1241085.841	9317.180673
1038543.719	1241182.244	9222.446046
1038553.607	1241278.68	9115.715249
1038563.911	1241375.381	9034.485366
1038574.63	1241472.098	8963.352387
1038585.806	1241568.833	8890.684839
1038597.475	1241665.588	8811.41285
1038609.677	1241762.364	8719.165772
1038622.448	1241859.163	8627.191105
1038635.821	1241955.981	8544.677681
1038649.755	1242052.298	8483.298757
1038664.359	1242148.641	8410.202171
1038679.657	1242245.011	8314.072824
1038695.675	1242341.411	8197.825543
1038712.28	1242436.802	8079.539492
1038729.59	1242531.261	7974.970824
1038747.816	1242625.757	7897.606009
1038766.983	1242720.29	7836.726816
1038786.121	1242814.821	7779.900227
1038804.812	1242909.413	7720.518097
1038823.284	1243004.007	7648.974772
1038841.662	1243098.598	7570.087149
1038859.942	1243193.663	7487.898668
1038878.415	1243289.249	7403.766766
1038887.869	1243337.05	7361.894635
1038897.322	1243384.852	7322.20145
1038900.078	1243409.005	7304.193728
1038902.835	1243433.158	7287.935988
1038898.89	1243480.183	7272.915168
1038848.294	1243574.946	7112.581051
1038787.336	1243671.374	6962.83544
1038715.806	1243768.297	6726.47864
1038647.789	1243862.189	6526.09527
1038613.968	1243931.307	6501.290023
1038581.361	1243997.538	6482.754089
1038544.273	1244070.803	6482.135227
1038511.198	1244145.985	6503.833578
1038483.286	1244232.652	6545.710811
1038458.702	1244323.069	6585.285538
1038437.235	1244416.483	6617.184488
1038426.926	1244510.34	6640.671912
1038419.882	1244606.227	6655.483891
1038411.721	1244705.36	6667.315723
1038403.875	1244804.505	6697.31659
1038399.174	1244903.573	6739.188286
1038396.509	1245003.098	6777.499511
1038393.032	1245102.591	6796.595442
1038390.213	1245202.37	6800.259504
1038392.866	1245302.462	6803.66525
1038396.774	1245402.604	6790.993081
1038400.191	1245502.727	6748.176109
1038404.442	1245602.882	6675.261248
1038411.722	1245703.217	6576.527437
1038401.946	1245802.865	6365.937071
1038394.058	1245902.588	6137.608436
1038388.976	1246002.422	5923.013063
1038387.095	1246102.407	5742.675511
1038388.153	1246202.512	5598.48842
1038390.514	1246302.669	5506.012339
1038389.769	1246402.703	5484.787474
1038385.119	1246501.76	5502.977539
1038377.733	1246599.054	5484.921407
1038367.105	1246696.22	5637.001953
1038352.083	1246793.212	5727.986816
1038327.988	1246889.845	5748.672363
1038318.119	1246913.85	5651.590332
1038308.249	1246937.856	5485.22194
1038288.51	1246985.867	5538.901047
1038247.662	1247081.303	5503.852261
1038212.735	1247175.725	5615.879395
1038177.541	1247271.665	5667.670898
1038141.541	1247368.553	5630.698242
1038106.086	1247465.817	5527.125488
1038069.552	1247564.264	5403.967537
1038032.209	1247662.804	5366.077031
1037995.101	1247760.773	5330.296228
1037957.993	1247858.708	5292.721364
1037921.222	1247956.386	5257.116478
1037884.65	1248053.918	5221.586042
1037848.742	1248151.417	5186.096236
1037814.366	1248248.129	5150.929853
1037782.121	1248345.094	5115.721993
1037752.364	1248443.679	5079.98819
1037725.842	1248542.393	5044.273997
1037701.787	1248641.388	5008.51395
1037657.113	1248739.695	4892.551714
1037591.071	1248837.117	4642.434084
1037553.841	1248935.08	4394.777656
1037524.841	1249032.866	4149.315564
1038442.656	1236637.418	9728.910192
1038457.865	1236737.414	9824.693395
1038469.47	1236837.267	9920.562887
1038479.22	1236937.047	10016.51875
1038488.466	1237036.807	10112.56105
1038497.389	1237136.554	10252.46247
1038505.982	1237236.288	10348.63245
1038514.516	1237336.019	10444.88906
1038522.985	1237435.748	10541.23239
1038531.349	1237535.473	10637.66252
1038539.694	1237635.197	10730.23862
1038548.016	1237734.92	10826.78232
1038556.301	1237834.642	10923.41301
1038564.572	1237934.363	11020.13074
1038572.831	1238034.084	11116.93561
1038581.094	1238133.804	11213.82768
1038589.736	1238233.54	11306.50823
1038599.255	1238333.311	11403.51446
1038610.083	1238433.133	11437.34796
1038623.413	1238533.055	11513.24247
1038640.042	1238633.198	11538.459
1038660.363	1238733.669	11603.05496
1038657.207	1238833.21	11538.25988
1038655.688	1238932.815	11501.42404
1038655.949	1239032.538	11467.42271
1038657.868	1239132.692	11435.10502
1038661.339	1239232.907	11405.29974
1038665.726	1239333.159	11377.85402
1038670.712	1239433.435	11352.18294
1038676.958	1239533.76	11327.58831
1038685.355	1239633.043	11303.34358
1038695.99	1239732.178	11277.51234
1038709.082	1239831.411	11248.59457
1038724.324	1239930.729	11214.47966
1038739.822	1240030.058	11174.17782
1038749.746	1240128.728	11108.54363
1038754.978	1240225.451	11028.00052
1038760.082	1240322.168	10953.55689
1038765.116	1240418.915	10878.22125
1038770.145	1240515.759	10799.97453
1038775.239	1240612.606	10712.24465
1038780.466	1240709.458	10620.23074
1038785.908	1240806.318	10526.52512
1038791.623	1240903.19	10434.08638
1038797.564	1241000.07	10340.24762
1038803.708	1241096.528	10240.2626
1038810.08	1241192.806	10129.51482
1038816.706	1241289.113	10017.87273
1038823.627	1241385.68	9915.76927
1038830.833	1241482.258	9822.49057
1038838.355	1241578.848	9736.17241
1038846.213	1241675.452	9650.55694
1038854.44	1241772.07	9571.132539
1038863.063	1241868.704	9492.517602
1038872.115	1241965.351	9407.423203
1038881.576	1242061.49	9318.040876
1038891.54	1242157.649	9220.688501
1038902.036	1242253.83	9111.658238
1038913.104	1242350.033	8991.275418
1038924.664	1242445.224	8870.261073
1038936.816	1242539.479	8762.135489
1038949.734	1242633.764	8669.223234
1038963.493	1242728.082	8586.380121
1038977.718	1242822.419	8506.77143
1038992.365	1242916.85	8415.082952
1039007.695	1243011.32	8316.720792
1039023.94	1243105.826	8211.87936
1039041.303	1243200.854	8107.567273
1039060.039	1243296.451	8013.721312
1039070.146	1243344.279	7975.664791
1039080.253	1243392.106	7948.192602
1039080.685	1243416.345	7938.559729
1039081.117	1243440.584	7930.370593
1039070.865	1243487.002	7924.737515
1039004.346	1243581.134	7710.498673
1038926.715	1243676.901	7552.22959
1038838.264	1243773.153	7368.695361
1038749.214	1243866.211	7199.239398
1038708.482	1243935.055	7185.182484
1038678.224	1244001.379	7163.848375
1038649.828	1244074.988	7157.242079
1038628.706	1244150.645	7186.114038
1038613.016	1244237.796	7234.787701
1038599.685	1244328.66	7282.343114
1038588.238	1244422.471	7323.404621
1038582.547	1244516.511	7362.013039
1038578.598	1244612.521	7391.898485
1038573.004	1244711.756	7413.462132
1038567.059	1244810.976	7440.181602
1038563.783	1244910.1	7476.131435
1038561.878	1245009.656	7504.471734
1038558.101	1245109.137	7497.784269
1038554.174	1245208.872	7475.496152
1038555.721	1245308.92	7459.855324
1038558.553	1245409.02	7444.060466
1038561.258	1245509.114	7418.679087
1038565.863	1245609.283	7376.263279
1038575.209	1245709.7	7319.646024
1038566.835	1245809.404	7134.965864
1038562.754	1245909.278	6925.820824
1038563.167	1246009.33	6708.282108
1038567.84	1246109.574	6486.919764
1038575.92	1246209.958	6259.346214
1038585.523	1246310.402	6126.712804
1038592.833	1246410.755	6162.63916
1038596.778	1246510.153	6139.162614
1038598.326	1246607.802	6160.125977
1038596.575	1246705.32	6271.677734
1038589.449	1246802.625	6346.722656
1038570.636	1246899.467	6327.371094
1038559.655	1246923.428	6207.044434
1038548.675	1246947.39	6034.801758
1038526.714	1246995.313	5943.8748
1038478.869	1247090.472	6069.131348
1038439.285	1247184.708	6236.952637
1038400.736	1247280.515	6325.621582
1038361.116	1247377.26	6273.388184
1038322.103	1247474.383	6096.245605
1038281.927	1247572.686	5899.708984
1038240.904	1247671.08	5845.71974
1038200.195	1247768.906	5720.51709
1038159.553	1247866.7	5664.459961
1038119.331	1247964.241	5726.793945
1038079.407	1248061.641	5726.455078
1038040.019	1248159.002	5726.785003
1038001.529	1248255.551	5685.951457
1037963.448	1248352.284	5645.102829
1037926.039	1248450.566	5605.804548
1037890.365	1248548.917	5566.529793
1037856.214	1248647.512	5527.206577
1037801.635	1248745.426	5399.703273
1037723.007	1248842.349	5124.763406
1037668.801	1248939.638	4852.62427
1037621.581	1249036.702	4582.990268
1038555.748	1236641.902	10628.69405
1038577.772	1236742.169	10733.18789
1038597.073	1236842.327	10833.77973
1038614.992	1236942.431	10938.41238
1038632.525	1237042.519	11043.14714
1038649.816	1237142.598	11187.59304
1038666.866	1237242.667	11292.50398
1038683.868	1237342.735	11397.51731
1038700.819	1237442.8	11498.22475
1038717.695	1237542.862	11603.37768
1038734.555	1237642.924	11708.63323
1038751.397	1237742.985	11809.3942
1038768.214	1237843.045	11914.78974
1038785.019	1237943.105	12020.28814
1038801.813	1238043.164	12153.72706
1038818.614	1238143.223	12259.48165
1038835.708	1238243.294	12365.33945
1038853.487	1238343.392	12433.35416
1038872.362	1238443.534	12513.89462
1038893.719	1238543.774	12588.89849
1038918.496	1238644.24	12666.46001
1038947.365	1238745.05	12746.82284
1038947.742	1238844.731	12713.27921
1038949.865	1238944.481	12678.65617
1038953.816	1239044.35	12644.40374
1038959.389	1239144.648	12610.57963
1038966.396	1239245.004	12577.4055
1038974.509	1239345.404	12544.95714
1038983.671	1239445.845	12514.07369
1038993.574	1239546.315	12485.67775
1039003.643	1239645.664	12459.88586
1039014.258	1239744.799	12432.87686
1039025.27	1239843.949	12392.23812
1039037.26	1239943.138	12339.44053
